ply
format ascii 1.0
element vertex 1461
property float x
property float y
property float z
property uchar red
property uchar green
property uchar blue
end_header
769.93 351.13 1032.45 207 230 23
761.67 406.99 1022.20 199 230 24
649.48 397.31 1015.17 150 230 28
639.38 322.43 1030.90 180 230 25
678.53 396.32 1012.46 80 230 33
701.19 380.64 1015.09 155 230 27
792.08 348.61 1037.21 191 230 24
723.14 354.83 1022.16 232 230 21
725.70 395.39 1016.00 88 230 33
694.19 423.63 1010.50 96 230 32
771.97 434.56 1023.42 167 230 26
804.13 343.26 1040.28 137 230 29
716.69 333.54 1026.28 240 230 21
663.94 399.41 1013.03 162 230 27
795.03 442.94 1026.52 113 230 31
699.03 465.19 1014.04 221 230 22
693.63 412.11 1010.63 69 230 34
758.75 293.02 1044.03 193 230 24
746.42 339.42 1030.23 204 230 23
780.15 312.67 1042.95 85 230 33
738.31 434.47 1016.00 162 230 27
727.34 425.23 1014.37 104 230 31
715.70 346.44 1022.84 240 230 21
630.86 361.65 1023.04 209 230 23
697.30 330.37 1026.20 184 230 25
695.39 454.92 1012.85 175 230 26
722.46 424.59 1013.34 129 230 29
742.07 331.63 1031.50 144 230 28
805.55 353.74 1038.90 204 230 23
765.86 341.20 1033.66 195 230 24
725.78 313.23 1033.19 255 187 15
748.87 412.79 1019.11 221 230 22
774.77 419.52 1023.69 156 230 27
688.29 337.58 1023.61 255 187 15
643.63 409.88 1014.10 45 230 36
739.92 380.50 1020.68 199 230 24
803.15 379.07 1033.54 151 230 28
790.59 342.18 1038.43 236 230 21
786.29 389.82 1029.56 255 226 19
754.68 333.73 1032.87 170 230 26
764.47 390.27 1024.54 142 230 28
791.28 353.35 1036.56 179 230 25
740.35 453.18 1017.96 93 230 32
775.49 423.51 1023.61 97 230 32
755.23 417.56 1019.96 129 230 29
807.90 410.00 1030.84 110 230 31
684.20 391.20 1013.23 161 230 27
680.81 469.01 1014.55 179 230 25
762.42 336.32 1034.58 106 230 31
664.50 414.89 1011.72 115 230 30
664.88 437.70 1011.85 181 230 25
640.66 373.30 1020.08 214 230 23
695.73 293.30 1036.54 217 230 22
654.43 450.05 1012.40 183 230 25
756.56 301.35 1041.42 145 230 28
641.67 459.01 1014.52 124 230 30
677.13 364.18 1018.11 173 230 26
630.94 467.40 1015.41 159 230 27
671.83 441.92 1010.80 106 230 31
669.26 393.81 1013.42 48 230 36
792.55 388.40 1030.48 131 230 29
660.28 442.38 1011.87 120 230 30
637.43 321.70 1030.88 190 230 25
792.67 294.31 1048.77 226 230 22
759.50 405.28 1022.12 191 230 24
801.10 292.96 1049.99 147 230 28
748.04 453.17 1019.71 172 230 26
799.07 448.16 1026.56 153 230 27
775.92 468.29 1025.45 201 230 24
750.17 392.30 1021.37 162 230 27
641.23 406.54 1014.84 120 230 30
786.36 339.91 1037.87 255 204 17
726.79 385.37 1017.34 192 230 24
690.87 332.24 1024.39 121 230 30
786.47 308.22 1044.90 188 230 25
761.05 349.14 1031.34 161 230 27
705.05 405.02 1012.22 167 230 26
778.60 300.78 1045.27 201 230 24
768.03 417.12 1023.06 179 230 25
798.27 327.63 1042.66 200 230 24
712.42 321.54 1029.08 255 187 15
691.47 348.04 1020.55 255 213 18
719.57 430.52 1012.82 49 230 36
707.91 444.47 1012.09 176 230 26
770.98 407.63 1023.80 231 230 21
748.16 351.78 1027.70 177 230 26
749.98 456.04 1019.60 71 230 34
686.93 421.78 1010.65 101 230 32
708.55 461.01 1014.56 56 230 35
706.06 421.10 1011.18 60 230 35
763.23 409.14 1022.44 170 230 26
704.12 399.98 1012.69 125 230 30
730.85 322.93 1031.29 207 230 23
721.70 394.22 1015.40 180 230 25
691.76 351.06 1019.99 114 230 31
631.65 313.60 1032.87 130 230 29
674.44 456.98 1012.54 109 230 31
663.13 308.19 1032.28 169 230 26
716.42 400.11 1013.40 129 230 29
682.06 372.17 1016.06 248 230 20
670.64 358.47 1019.35 164 230 27
694.10 404.42 1012.09 118 230 30
769.86 368.18 1029.25 131 230 29
793.68 455.06 1026.17 204 230 23
807.30 295.17 1050.14 186 230 25
744.90 401.41 1019.41 255 218 18
684.89 461.73 1013.52 167 230 26
756.09 456.71 1020.79 166 230 26
709.92 436.34 1011.64 141 230 28
784.06 338.19 1038.29 255 193 16
731.26 428.57 1014.91 170 230 26
647.82 331.46 1028.24 169 230 26
786.69 442.01 1024.92 76 230 34
776.89 445.24 1023.77 165 230 26
790.34 334.21 1040.00 146 230 28
672.53 403.22 1011.96 145 230 28
666.05 377.99 1015.42 212 230 23
721.14 296.75 1037.13 160 230 27
766.79 389.50 1025.24 146 230 28
778.38 403.49 1026.01 196 230 24
687.93 461.55 1013.26 150 230 28
773.83 351.13 1033.26 194 230 24
745.44 367.23 1024.38 197 230 24
685.07 399.42 1011.92 88 230 33
709.13 362.58 1019.14 146 230 28
746.35 329.47 1032.28 140 230 28
641.22 345.80 1025.11 198 230 24
791.76 370.55 1033.67 189 230 25
803.38 307.06 1047.53 212 230 23
712.90 355.61 1020.92 133 230 29
698.57 398.37 1011.88 149 230 28
673.27 353.22 1020.34 156 230 27
694.20 429.60 1010.76 173 230 26
765.37 373.54 1026.95 253 230 20
744.77 446.30 1017.76 198 230 24
646.19 307.70 1033.64 255 221 19
742.28 423.89 1016.82 150 230 28
745.54 462.35 1019.32 211 230 23
681.49 388.32 1013.71 109 230 31
649.37 417.92 1013.52 180 230 25
652.61 311.80 1032.35 175 230 26
764.30 332.33 1035.82 213 230 23
770.83 385.87 1026.97 209 230 23
797.08 451.31 1026.48 169 230 26
667.43 358.39 1019.62 173 230 26
760.00 334.38 1034.62 178 230 25
674.46 422.99 1011.04 189 230 25
632.63 463.95 1015.08 81 230 33
674.08 387.16 1013.68 110 230 31
769.12 443.08 1021.92 208 230 23
804.31 450.73 1027.55 96 230 32
752.91 401.11 1021.25 143 230 28
709.48 449.21 1012.65 138 230 29
800.95 438.91 1027.49 236 230 21
796.83 408.37 1028.69 129 230 29
727.54 430.65 1014.26 83 230 33
763.07 295.05 1044.45 225 230 22
784.78 419.32 1025.72 140 230 28
762.93 340.79 1033.53 171 230 26
636.39 426.70 1013.81 134 230 29
803.61 354.56 1038.06 227 230 22
763.11 330.79 1035.57 213 230 23
639.63 316.27 1031.94 221 230 22
727.93 305.24 1035.55 233 230 21
752.58 302.89 1040.24 255 228 19
731.64 358.47 1022.98 227 230 22
747.71 465.88 1020.01 221 230 22
766.92 373.59 1027.74 255 209 17
637.99 326.99 1029.38 188 230 25
733.67 359.69 1023.05 232 230 21
767.25 459.02 1023.01 111 230 31
793.73 412.78 1028.05 129 230 29
653.79 394.06 1014.88 66 230 34
693.40 450.37 1012.06 117 230 30
630.93 330.05 1029.20 122 230 30
664.03 293.23 1036.99 178 230 26
764.64 439.25 1020.97 87 230 33
806.02 330.70 1042.43 121 230 30
663.10 430.20 1011.59 147 230 28
682.14 426.50 1010.66 163 230 27
697.84 335.35 1024.55 137 230 29
784.47 404.90 1027.09 93 230 32
636.04 445.32 1013.66 164 230 27
668.98 405.25 1011.91 169 230 26
772.02 347.18 1033.70 252 230 20
685.31 384.36 1014.09 93 230 32
695.95 384.08 1014.70 185 230 25
783.85 378.42 1030.93 88 230 33
648.81 402.13 1014.54 85 230 33
792.02 393.42 1030.07 183 230 25
722.57 366.12 1019.67 186 230 25
770.37 368.65 1029.40 148 230 28
722.60 313.28 1032.60 230 230 21
801.69 384.39 1032.59 255 208 17
653.18 451.57 1013.29 162 230 27
666.81 351.80 1020.67 163 230 27
726.59 410.20 1014.49 118 230 30
676.45 294.63 1035.47 250 230 20
784.06 449.59 1025.14 226 230 22
731.66 309.51 1034.92 169 230 26
735.21 311.44 1035.77 239 230 21
786.79 389.72 1029.73 228 230 22
747.92 430.67 1018.65 104 230 31
642.32 305.53 1034.72 164 230 27
703.62 355.88 1019.71 143 230 28
724.58 465.90 1016.95 234 230 21
790.24 449.95 1025.92 131 230 29
704.40 409.47 1011.64 118 230 30
729.39 389.70 1017.02 169 230 26
779.77 370.13 1030.79 135 230 29
762.35 381.93 1025.34 226 230 22
665.78 399.67 1012.99 75 230 34
771.74 458.58 1023.76 73 230 34
667.32 303.44 1033.70 230 230 21
800.09 463.35 1027.70 165 230 27
681.89 386.13 1014.07 115 230 30
633.91 444.58 1013.83 169 230 26
786.93 352.46 1036.12 176 230 26
670.72 401.12 1012.80 189 230 25
745.61 434.60 1017.65 188 230 25
651.58 434.43 1012.49 123 230 30
778.98 316.74 1041.56 212 230 23
694.16 322.84 1027.00 255 215 18
657.58 300.29 1035.20 175 230 26
703.16 313.98 1030.27 205 230 23
661.17 335.40 1025.54 163 230 27
806.97 439.94 1027.56 84 230 33
655.14 355.25 1021.19 169 230 26
771.33 439.12 1022.52 150 230 28
735.19 297.84 1039.43 192 230 24
718.71 435.39 1013.20 174 230 26
708.49 298.75 1035.36 163 230 27
727.28 445.61 1015.01 102 230 31
719.18 378.79 1017.05 231 230 21
738.09 335.48 1029.78 132 230 29
759.60 380.32 1025.31 240 230 21
804.99 347.46 1039.75 123 230 30
692.71 401.62 1012.06 112 230 31
746.61 322.90 1034.32 183 230 25
752.89 370.74 1025.14 176 230 26
644.83 403.52 1014.30 146 230 28
801.33 328.47 1042.66 186 230 25
656.55 352.04 1021.88 255 210 18
716.32 299.64 1036.13 249 230 20
659.99 418.23 1011.83 141 230 28
695.25 311.03 1031.02 255 190 16
714.52 446.07 1013.09 124 230 30
721.83 304.65 1035.21 245 230 20
636.75 300.85 1036.00 201 230 24
655.86 413.34 1012.77 98 230 32
706.55 337.61 1024.00 147 230 28
808.34 447.24 1027.78 65 230 34
636.36 329.61 1029.24 126 230 30
672.06 447.07 1011.55 115 230 30
665.38 405.89 1012.25 137 230 29
669.42 321.17 1028.08 136 230 29
777.88 332.34 1038.06 109 230 31
667.54 407.24 1012.30 133 230 29
632.04 295.29 1037.90 151 230 28
658.26 395.20 1014.46 150 230 28
725.06 331.65 1027.80 192 230 24
665.74 384.39 1015.29 139 230 29
713.24 297.80 1036.15 224 230 22
642.58 392.78 1016.30 148 230 28
644.22 457.66 1014.14 79 230 33
721.83 392.78 1015.63 149 230 28
641.47 434.67 1013.02 132 230 29
670.65 423.77 1011.34 125 230 30
784.73 389.92 1028.89 200 230 24
664.98 320.68 1028.93 235 230 21
740.32 361.14 1024.68 187 230 25
722.11 314.56 1031.99 219 230 22
797.22 389.89 1031.22 118 230 30
711.51 375.31 1016.85 106 230 31
651.06 365.52 1020.27 167 230 26
725.50 468.83 1017.75 179 230 25
659.31 365.60 1018.89 109 230 31
780.48 459.97 1025.25 101 230 32
771.80 417.87 1023.20 55 230 35
693.90 441.55 1011.54 83 230 33
783.16 431.68 1024.84 222 230 22
732.02 403.65 1017.02 149 230 28
727.81 469.43 1018.06 120 230 30
775.06 461.78 1024.47 120 230 30
791.59 332.24 1040.77 128 230 29
650.52 382.95 1016.82 179 230 25
704.81 366.44 1017.91 147 230 28
675.05 322.94 1027.86 186 230 25
805.79 399.16 1030.76 206 230 23
727.86 447.26 1014.93 73 230 34
786.38 397.75 1028.19 160 230 27
755.87 325.32 1035.65 165 230 26
779.52 372.79 1030.51 209 230 23
687.60 315.90 1029.28 118 230 30
726.64 348.60 1024.17 255 207 17
765.62 390.22 1025.11 131 230 29
807.12 290.70 1051.29 216 230 23
655.34 384.25 1016.31 167 230 26
721.63 417.77 1013.19 200 230 24
800.03 346.01 1038.85 241 230 21
717.98 402.66 1014.11 156 230 27
759.18 384.24 1024.35 252 230 20
802.99 352.92 1038.11 209 230 23
792.69 406.59 1028.24 128 230 29
739.49 387.91 1020.03 123 230 30
720.29 312.16 1032.82 255 224 19
726.27 442.18 1014.37 160 230 27
649.80 292.11 1037.94 122 230 30
713.21 419.65 1012.17 103 230 31
795.48 463.66 1027.19 157 230 27
668.67 311.55 1030.79 251 230 20
745.45 389.06 1020.48 163 230 27
735.15 454.13 1016.36 244 230 20
793.65 444.36 1026.33 153 230 27
716.20 339.84 1024.92 120 230 30
650.55 303.95 1034.69 197 230 24
704.32 415.58 1011.42 142 230 28
744.39 344.57 1029.12 255 185 15
703.56 360.40 1018.43 134 230 29
733.15 334.80 1029.13 211 230 23
714.28 382.62 1015.86 182 230 25
807.85 431.78 1028.16 89 230 33
799.36 317.84 1044.96 168 230 26
719.29 376.90 1017.74 185 230 25
712.26 342.56 1023.19 205 230 23
742.03 372.50 1022.62 255 209 17
662.67 375.06 1016.79 156 230 27
754.44 424.49 1020.01 153 230 27
740.58 373.76 1021.86 200 230 24
714.73 360.93 1019.94 217 230 22
701.72 339.67 1023.38 211 230 23
800.05 448.90 1026.59 161 230 27
705.03 414.97 1011.47 107 230 31
637.62 430.65 1013.45 148 230 28
793.40 316.79 1043.69 196 230 24
721.26 335.84 1026.42 231 230 21
804.46 348.11 1039.92 148 230 28
729.04 467.31 1017.88 93 230 32
705.96 387.69 1014.35 100 230 32
669.79 367.73 1017.54 255 227 19
777.31 453.56 1024.19 118 230 30
695.18 361.28 1018.00 139 230 29
758.72 329.05 1035.22 255 211 18
763.26 461.23 1022.66 189 230 25
731.32 389.50 1017.57 239 230 21
648.11 439.33 1012.55 219 230 22
659.95 457.50 1013.39 93 230 32
660.56 311.52 1031.42 189 230 25
746.44 347.76 1028.80 255 157 12
794.08 375.40 1032.75 107 230 31
680.26 375.22 1015.65 124 230 30
779.37 394.95 1027.01 125 230 30
692.01 401.95 1012.15 148 230 28
638.30 294.43 1037.91 166 230 26
728.75 412.94 1014.73 175 230 26
719.70 369.31 1018.43 149 230 28
634.33 346.43 1025.66 150 230 28
661.01 362.79 1019.07 132 230 29
654.29 309.03 1033.03 150 230 28
736.23 307.88 1036.74 157 230 27
631.56 307.87 1035.22 152 230 28
783.10 347.77 1035.75 197 230 24
697.94 326.68 1026.63 164 230 27
700.22 338.51 1023.59 187 230 25
759.08 293.81 1043.82 172 230 26
706.06 407.88 1011.87 55 230 35
809.51 330.59 1043.13 81 230 33
671.42 467.56 1014.57 45 230 36
631.50 411.57 1015.33 184 230 25
650.36 464.68 1014.90 212 230 23
634.07 403.26 1016.10 90 230 32
784.86 320.48 1041.93 223 230 22
685.91 359.35 1018.60 99 230 32
684.35 398.78 1011.95 100 230 32
744.44 325.88 1033.56 136 230 29
741.94 350.36 1026.66 165 230 27
699.03 330.83 1026.25 225 230 22
768.54 422.82 1022.51 169 230 26
693.49 319.09 1028.76 205 230 23
669.71 360.91 1018.78 153 230 27
721.68 324.95 1029.52 230 230 21
726.64 396.34 1016.16 84 230 33
699.29 353.55 1019.68 132 230 29
805.94 452.02 1027.64 126 230 30
639.50 422.54 1014.47 162 230 27
757.75 413.68 1020.78 217 230 22
795.47 378.87 1033.06 206 230 23
707.39 311.17 1031.75 255 221 19
717.83 394.81 1014.49 39 230 36
781.15 360.89 1033.11 162 230 27
694.10 345.31 1021.78 238 230 21
632.73 453.31 1014.27 95 230 32
643.92 377.86 1018.99 152 230 28
770.98 297.42 1045.16 185 230 25
750.08 389.29 1021.45 234 230 21
723.42 463.70 1016.60 142 230 28
787.69 411.07 1026.86 134 230 29
697.66 302.90 1034.05 174 230 26
698.57 301.81 1034.11 117 230 30
635.72 346.39 1025.74 75 230 34
689.73 403.69 1011.65 118 230 30
752.98 460.40 1020.54 180 230 25
686.89 458.22 1013.51 153 230 27
725.05 339.52 1026.25 240 230 21
683.72 430.47 1011.04 123 230 30
764.85 316.03 1039.36 80 230 33
700.96 429.33 1011.14 128 230 29
707.96 433.25 1011.85 255 218 18
797.88 402.79 1028.90 220 230 22
763.92 295.80 1044.21 255 220 19
795.89 350.42 1037.21 144 230 28
789.35 322.33 1042.68 192 230 24
761.17 323.40 1037.16 172 230 26
680.21 393.27 1012.75 103 230 31
692.36 374.85 1015.64 141 230 28
744.75 363.02 1024.97 171 230 26
705.89 364.38 1017.88 158 230 27
796.30 386.82 1031.13 195 230 24
756.66 420.48 1020.30 93 230 32
769.98 361.96 1030.64 212 230 23
773.37 437.87 1023.28 111 230 31
630.16 368.69 1022.03 207 230 23
771.22 354.96 1032.49 240 230 21
708.09 440.36 1012.01 156 230 27
706.11 304.53 1033.56 249 230 20
644.54 434.96 1012.77 138 230 29
740.24 337.88 1029.60 139 230 29
655.62 443.83 1012.26 54 230 35
700.43 381.29 1015.05 143 230 28
732.58 300.75 1038.31 255 215 18
690.91 328.57 1025.53 214 230 23
746.14 325.01 1033.70 216 230 23
777.59 299.36 1045.50 186 230 25
741.41 430.21 1016.52 72 230 34
757.26 376.43 1025.67 251 230 20
706.36 410.84 1011.92 86 230 33
688.33 461.31 1013.22 146 230 28
742.57 405.35 1018.36 202 230 24
671.92 380.87 1015.07 128 230 29
767.57 388.44 1025.32 193 230 24
751.69 427.90 1018.75 142 230 28
797.89 417.60 1027.78 45 230 36
797.38 334.79 1041.21 145 230 28
786.15 450.59 1025.32 96 230 32
632.25 386.07 1018.97 144 230 28
762.61 355.13 1030.68 204 230 23
785.25 408.31 1026.57 181 230 25
761.19 455.83 1021.07 236 230 21
660.98 303.24 1033.76 189 230 25
686.82 387.77 1013.79 128 230 29
809.66 330.11 1043.11 70 230 34
713.89 396.09 1013.87 172 230 26
706.96 331.82 1025.53 232 230 21
742.83 400.85 1018.81 255 228 19
663.70 459.41 1013.95 141 230 28
640.53 411.78 1014.93 118 230 30
639.62 443.67 1013.15 51 230 35
645.24 375.37 1018.78 164 230 27
685.43 330.41 1025.63 189 230 25
754.92 468.82 1021.94 147 230 28
671.01 387.74 1014.16 84 230 33
754.30 428.19 1019.20 120 230 30
701.67 323.02 1027.96 196 230 24
691.82 366.07 1016.83 141 230 28
808.24 350.97 1039.78 165 230 27
707.67 301.38 1034.26 233 230 21
785.14 405.32 1027.05 119 230 30
720.49 449.58 1014.64 170 230 26
786.75 319.20 1042.50 241 230 21
709.81 382.80 1015.20 161 230 27
746.78 327.41 1033.19 232 230 21
694.92 329.93 1025.39 218 230 22
711.22 375.32 1016.85 116 230 30
713.26 369.71 1018.05 120 230 30
724.84 467.24 1017.55 187 230 25
733.22 316.13 1033.96 114 230 31
681.23 368.66 1016.42 152 230 28
765.17 359.01 1030.39 244 230 20
804.43 323.29 1043.58 174 230 26
636.86 370.77 1020.31 182 230 25
804.58 380.61 1033.47 125 230 30
678.69 446.00 1011.79 40 230 36
678.15 386.11 1013.45 136 230 29
648.67 376.83 1017.96 126 230 30
733.52 405.71 1016.77 151 230 28
759.71 337.84 1033.07 82 230 33
638.98 346.71 1025.33 176 230 26
767.19 367.48 1029.15 81 230 33
643.42 466.34 1015.09 203 230 24
697.90 436.86 1011.34 155 230 27
649.89 378.92 1017.79 118 230 30
706.15 429.82 1011.21 124 230 30
737.64 296.67 1039.60 153 230 27
659.04 330.77 1026.58 134 230 29
659.98 319.91 1030.24 210 230 23
795.17 313.89 1045.01 179 230 25
637.14 311.99 1033.54 223 230 22
710.70 464.18 1015.00 171 230 26
806.87 407.15 1030.24 136 230 29
682.42 295.64 1035.97 89 230 32
661.78 366.70 1018.40 132 230 29
681.22 351.86 1019.75 231 230 21
709.60 330.40 1025.76 121 230 30
776.12 446.66 1023.32 216 230 23
687.05 336.17 1024.38 255 225 19
779.85 292.12 1047.68 255 191 16
808.48 444.33 1028.10 168 230 26
673.52 455.48 1012.62 120 230 30
695.93 456.78 1012.90 125 230 30
716.99 403.81 1013.69 178 230 25
718.78 421.11 1012.84 158 230 27
728.95 416.64 1015.09 99 230 32
779.94 302.45 1044.85 222 230 22
721.10 406.69 1014.11 146 230 28
645.09 291.68 1038.42 197 230 24
652.85 355.76 1021.34 204 230 23
730.95 343.31 1026.30 174 230 26
751.95 401.19 1021.39 198 230 24
803.02 314.41 1046.00 211 230 23
759.98 391.92 1023.73 255 217 18
701.35 366.23 1017.33 139 230 29
808.47 450.05 1027.88 147 230 28
734.91 380.98 1019.84 102 230 31
806.21 327.90 1043.37 246 230 20
790.19 372.08 1032.96 183 230 25
750.79 396.77 1020.91 117 230 30
646.81 422.51 1013.12 160 230 27
719.95 414.46 1013.13 184 230 25
779.10 365.62 1031.62 226 230 22
653.46 427.65 1012.33 117 230 30
697.13 304.62 1033.20 255 229 19
743.70 369.21 1023.68 152 230 28
705.16 321.29 1028.71 211 230 23
668.02 337.53 1024.90 217 230 22
641.43 393.20 1016.48 161 230 27
671.11 388.65 1014.16 116 230 30
653.79 411.06 1013.04 109 230 31
658.00 308.02 1031.87 226 230 22
715.67 290.12 1038.94 150 230 28
777.94 340.64 1036.19 168 230 26
699.54 415.06 1011.57 122 230 30
718.31 344.06 1023.84 253 230 20
643.19 312.94 1032.40 134 230 29
802.58 305.51 1047.55 209 230 23
701.55 294.65 1035.99 218 230 22
780.66 298.99 1046.27 187 230 25
653.33 328.39 1027.55 245 230 20
666.17 357.04 1019.97 225 230 22
708.37 411.67 1011.44 90 230 32
725.60 323.45 1030.46 169 230 26
657.38 420.99 1012.33 147 230 28
672.33 352.89 1020.55 176 230 26
733.25 424.38 1015.44 206 230 23
694.55 409.45 1010.99 113 230 31
799.07 416.19 1028.05 145 230 28
709.81 453.06 1012.92 193 230 24
766.61 302.98 1043.25 226 230 22
666.00 417.42 1011.82 53 230 35
785.30 454.29 1025.44 161 230 27
789.11 397.04 1028.83 176 230 26
641.91 349.34 1024.11 203 230 24
789.34 424.56 1026.12 180 230 25
701.51 290.56 1037.57 220 230 22
785.95 447.12 1025.42 122 230 30
771.67 358.35 1031.69 164 230 27
783.56 417.56 1025.62 137 230 29
733.09 394.78 1017.52 234 230 21
808.34 459.81 1028.56 58 230 35
757.63 443.77 1020.15 176 230 26
754.38 416.09 1020.28 181 230 25
799.56 420.10 1028.31 35 230 37
804.50 305.97 1047.92 170 230 26
664.64 302.23 1034.22 255 208 17
656.58 401.84 1013.84 69 230 34
651.41 336.23 1026.32 189 230 25
748.58 371.57 1024.35 128 230 29
729.70 363.35 1021.74 249 230 20
716.62 416.13 1012.40 107 230 31
740.68 392.92 1019.38 255 201 17
807.52 358.52 1038.31 124 230 30
714.31 358.65 1020.35 132 230 29
729.10 338.82 1027.21 209 230 23
708.50 372.00 1017.17 179 230 25
635.25 391.93 1017.30 72 230 34
634.10 389.20 1017.67 173 230 26
673.02 424.68 1010.95 149 230 28
756.03 414.24 1019.67 193 230 24
799.92 364.51 1035.91 78 230 33
740.75 449.93 1017.61 182 230 25
736.11 403.24 1017.80 198 230 24
805.80 442.18 1027.81 215 230 23
715.06 353.31 1021.55 175 230 26
688.47 383.55 1013.90 77 230 33
730.09 467.06 1017.62 80 230 33
642.72 295.01 1037.07 250 230 20
712.97 447.39 1013.20 118 230 30
656.32 368.93 1018.58 220 230 22
634.30 385.07 1018.17 132 230 29
662.14 424.21 1011.84 181 230 25
802.06 388.22 1031.56 255 217 18
644.47 290.02 1038.80 121 230 30
694.86 295.95 1035.37 165 230 27
804.86 460.14 1028.24 88 230 33
685.81 341.50 1022.56 128 230 29
772.49 324.63 1039.14 157 230 27
805.29 448.91 1027.91 70 230 34
661.52 421.39 1011.57 128 230 29
769.55 394.67 1025.52 205 230 23
710.67 410.47 1012.27 183 230 25
689.68 296.35 1035.79 255 220 19
698.32 466.68 1014.71 251 230 20
714.90 317.60 1030.71 255 188 15
724.95 422.59 1014.18 195 230 24
795.25 367.91 1034.61 160 230 27
696.83 449.90 1011.94 83 230 33
641.19 372.85 1020.26 216 230 23
662.73 386.51 1014.93 177 230 26
682.38 383.91 1014.29 163 230 27
783.88 302.93 1045.66 212 230 23
808.90 421.58 1029.15 136 230 29
766.52 366.87 1028.94 88 230 33
648.74 405.69 1013.91 69 230 34
675.01 312.36 1030.60 233 230 21
751.68 379.63 1023.52 107 230 31
689.41 372.68 1016.12 170 230 26
792.57 448.90 1025.99 94 230 32
726.18 364.42 1020.63 165 230 27
674.33 425.00 1010.67 159 230 27
711.84 387.74 1014.80 152 230 28
640.81 300.17 1036.05 183 230 25
642.04 447.81 1013.73 103 230 31
736.68 431.64 1016.20 189 230 25
736.85 376.25 1020.90 208 230 23
729.20 409.24 1014.98 195 230 24
716.50 358.19 1020.38 202 230 24
632.46 329.06 1029.21 147 230 28
676.39 291.04 1036.89 255 204 17
642.35 349.43 1023.94 197 230 24
652.78 292.51 1037.46 253 230 20
765.02 327.70 1037.04 235 230 21
641.51 368.38 1020.70 103 230 31
657.30 367.04 1018.88 152 230 28
676.17 309.56 1030.66 243 230 20
660.49 380.88 1016.36 230 230 21
632.40 354.25 1024.11 165 230 27
787.99 354.78 1035.59 179 230 25
714.13 369.00 1018.10 148 230 28
752.38 461.84 1021.21 247 230 20
804.63 438.58 1027.57 83 230 33
735.42 403.80 1017.39 184 230 25
719.84 429.66 1012.87 23 230 38
758.73 409.53 1021.17 203 230 24
787.29 401.91 1027.37 220 230 22
758.88 466.16 1021.88 113 230 31
772.08 326.15 1038.82 252 230 20
635.19 348.65 1025.44 171 230 26
807.79 422.30 1029.22 150 230 28
763.51 297.44 1043.65 178 230 26
667.05 367.75 1017.57 211 230 23
715.96 363.97 1019.52 255 218 18
647.27 376.02 1018.11 134 230 29
799.57 316.78 1044.83 194 230 24
656.05 415.90 1012.59 122 230 30
638.99 425.06 1013.74 140 230 29
677.29 370.98 1016.28 102 230 31
642.65 369.99 1020.39 157 230 27
689.09 416.38 1010.79 61 230 35
678.93 393.43 1012.79 148 230 28
646.97 437.09 1012.52 139 230 29
766.30 387.01 1025.56 138 230 29
632.28 457.20 1014.44 116 230 30
741.81 407.52 1017.89 199 230 24
684.29 349.53 1020.30 255 169 13
777.03 299.91 1045.48 110 230 31
763.69 342.25 1033.49 229 230 22
710.79 425.55 1011.95 181 230 25
807.81 349.65 1039.69 122 230 30
808.79 417.21 1029.30 120 230 30
785.58 444.22 1025.10 186 230 25
690.71 317.38 1029.09 145 230 28
764.91 427.16 1021.51 112 230 31
643.40 307.67 1034.25 229 230 22
650.32 455.48 1013.16 159 230 27
790.93 322.28 1042.71 170 230 26
747.93 434.59 1018.08 99 230 32
682.35 378.03 1015.26 255 207 17
751.70 393.17 1021.68 205 230 23
767.08 459.66 1022.89 101 230 32
652.83 441.95 1012.40 120 230 30
669.51 373.88 1016.44 146 230 28
745.27 469.23 1021.03 221 230 22
703.27 443.54 1012.15 139 230 29
698.44 413.58 1011.84 190 230 25
758.74 409.87 1021.10 210 230 23
697.15 418.03 1011.28 131 230 29
761.37 307.01 1040.92 108 230 31
657.81 295.65 1036.39 255 156 12
694.03 291.58 1037.22 255 203 17
660.09 396.10 1014.21 163 230 27
689.08 405.08 1011.70 90 230 32
748.30 339.29 1030.73 242 230 20
668.62 354.11 1020.18 125 230 30
734.64 323.19 1032.15 255 205 17
754.01 336.92 1032.26 150 230 28
709.40 346.95 1022.17 180 230 25
657.19 399.34 1013.64 96 230 32
765.39 380.98 1026.17 204 230 23
693.16 432.66 1010.66 95 230 32
702.70 441.19 1011.57 146 230 28
646.35 336.60 1026.59 211 230 23
785.21 346.32 1036.99 236 230 21
734.77 404.04 1016.88 140 230 29
742.70 348.68 1027.36 229 230 21
765.80 373.75 1026.77 255 201 17
791.99 426.77 1025.69 170 230 26
767.53 301.72 1043.67 181 230 25
682.06 309.93 1031.37 107 230 31
744.41 458.29 1019.13 164 230 27
665.41 414.37 1011.87 86 230 33
676.73 305.98 1032.54 254 230 20
773.42 448.97 1023.29 165 230 27
656.94 422.49 1012.43 159 230 27
792.48 461.59 1027.02 149 230 28
786.09 374.51 1032.01 171 230 26
762.59 465.69 1022.90 179 230 25
726.14 344.85 1025.06 255 225 19
800.15 464.34 1027.94 180 230 25
727.95 361.69 1021.74 158 230 27
656.21 332.15 1027.01 192 230 24
649.94 290.77 1038.02 187 230 25
781.09 458.30 1025.06 182 230 25
660.12 419.11 1011.77 115 230 30
662.76 317.81 1029.74 151 230 28
647.98 383.35 1016.69 177 230 26
723.92 467.32 1017.88 167 230 26
692.35 381.47 1014.31 204 230 23
791.52 435.39 1025.74 120 230 30
746.51 306.65 1038.92 255 201 17
764.89 465.22 1023.18 143 230 28
757.01 397.27 1022.67 224 230 22
768.53 441.96 1021.35 171 230 26
650.94 388.20 1016.08 138 230 29
804.84 358.44 1037.86 134 230 29
689.10 341.41 1022.50 177 230 26
791.72 329.91 1040.72 129 230 29
745.19 329.15 1032.32 182 230 25
807.20 409.92 1030.52 159 230 27
771.13 345.25 1034.09 211 230 23
751.40 323.73 1035.52 255 198 16
667.04 349.36 1021.31 255 223 19
631.36 417.57 1014.95 119 230 30
773.01 396.54 1026.10 180 230 25
630.43 402.12 1016.43 99 230 32
670.15 411.62 1011.59 182 230 25
665.09 430.80 1011.62 129 230 29
806.49 353.91 1039.08 218 230 22
785.93 349.48 1036.51 168 230 26
712.77 384.34 1015.51 217 230 22
793.74 313.88 1044.70 166 230 26
702.76 465.32 1014.64 139 230 29
738.18 423.31 1016.05 178 230 26
664.15 427.39 1011.39 65 230 34
717.37 431.96 1012.87 65 230 34
723.91 302.02 1035.87 176 230 26
746.24 435.99 1017.15 239 230 21
783.57 437.13 1024.90 193 230 24
670.77 387.84 1014.13 73 230 34
736.60 336.83 1029.54 176 230 26
708.09 318.10 1029.73 166 230 26
649.54 357.87 1021.28 237 230 21
635.90 309.16 1033.83 124 230 30
673.68 429.70 1010.75 46 230 36
710.18 463.23 1014.77 123 230 30
694.26 291.10 1037.33 211 230 23
661.00 356.30 1020.68 183 230 25
723.72 323.50 1030.25 195 230 24
643.71 371.89 1019.78 198 230 24
679.00 380.76 1014.86 213 230 23
640.13 321.17 1030.77 128 230 29
746.98 406.09 1019.56 173 230 26
716.35 425.68 1012.53 179 230 25
677.52 443.14 1011.26 105 230 31
657.78 422.46 1012.07 133 230 29
675.77 396.18 1012.91 99 230 32
807.87 366.22 1036.39 186 230 25
652.96 377.73 1017.57 151 230 28
642.18 305.07 1034.66 171 230 26
776.57 353.81 1033.32 255 199 16
712.03 455.10 1014.14 255 206 17
677.51 299.07 1034.34 174 230 26
719.38 382.99 1016.45 80 230 33
666.06 352.83 1020.72 101 230 32
682.92 413.77 1011.17 115 230 30
675.53 469.76 1014.98 96 230 32
733.18 310.41 1035.15 226 230 22
776.18 357.15 1032.50 116 230 30
782.87 329.43 1039.59 216 230 22
807.94 442.09 1027.91 91 230 32
673.05 351.37 1020.75 156 230 27
782.29 459.83 1025.30 77 230 33
682.74 368.10 1016.46 87 230 33
804.24 370.83 1034.78 225 230 22
700.69 337.87 1023.75 193 230 24
809.51 375.57 1035.25 162 230 27
637.14 301.43 1036.01 157 230 27
670.15 296.25 1035.44 236 230 21
671.05 424.31 1011.33 125 230 30
713.09 422.66 1011.93 112 230 31
781.05 321.53 1040.77 215 230 23
756.86 290.39 1044.87 144 230 28
638.42 443.92 1013.58 91 230 32
797.49 327.63 1042.44 238 230 21
798.52 305.03 1047.12 114 230 31
630.02 440.97 1013.54 136 230 29
727.86 393.75 1016.31 189 230 25
746.89 421.95 1017.82 130 230 29
664.32 425.41 1011.42 136 230 29
752.88 344.49 1030.93 156 230 27
801.18 378.22 1033.45 206 230 23
736.24 345.28 1027.07 255 221 19
713.87 452.72 1014.66 186 230 25
684.69 392.95 1012.70 174 230 26
726.69 348.82 1024.15 255 220 19
730.69 311.01 1034.44 217 230 22
634.09 416.04 1014.47 58 230 35
774.84 377.50 1028.81 102 230 31
650.21 348.61 1023.86 199 230 24
731.89 411.05 1015.51 195 230 24
719.63 323.51 1029.52 209 230 23
800.73 291.26 1050.33 161 230 27
779.10 320.38 1040.92 255 218 18
796.07 303.13 1047.26 133 230 29
808.86 466.90 1029.22 78 230 33
780.69 452.88 1024.48 102 230 31
795.37 386.63 1030.88 194 230 24
750.96 427.20 1018.77 123 230 30
698.22 437.85 1011.31 114 230 31
733.47 436.63 1015.36 189 230 25
654.26 317.45 1030.77 187 230 25
719.40 453.07 1014.74 180 230 25
805.95 366.28 1035.88 140 230 29
675.98 331.35 1025.62 252 230 20
737.89 359.30 1024.74 222 230 22
722.11 392.30 1015.75 136 230 29
764.15 449.97 1021.66 64 230 34
755.37 425.93 1019.79 154 230 27
711.22 334.62 1025.77 168 230 26
688.36 342.41 1022.00 195 230 24
769.47 331.16 1036.98 158 230 27
669.64 401.44 1012.99 236 230 21
669.78 433.75 1011.23 107 230 31
668.67 389.80 1014.09 161 230 27
779.94 347.88 1035.70 185 230 25
699.95 359.88 1018.82 198 230 24
775.41 399.24 1026.22 121 230 30
751.32 365.26 1025.93 226 230 22
667.25 406.45 1012.37 105 230 31
651.73 462.48 1014.47 175 230 26
809.71 320.29 1044.97 145 230 28
808.33 448.52 1027.82 73 230 34
788.40 302.86 1046.17 160 230 27
767.35 307.69 1041.94 177 230 26
682.13 464.18 1013.59 34 230 37
721.30 405.71 1014.33 126 230 30
639.79 400.52 1016.22 172 230 26
631.76 294.72 1038.04 123 230 30
752.53 376.09 1023.66 255 203 17
805.02 418.39 1028.58 141 230 28
635.75 333.61 1028.61 255 206 17
634.09 438.11 1013.56 168 230 26
709.55 373.47 1016.71 150 230 28
756.08 451.04 1020.18 145 230 28
772.68 446.45 1023.09 88 230 33
724.06 349.14 1024.00 55 230 35
807.54 461.99 1028.03 117 230 30
800.79 369.66 1034.80 151 230 28
711.84 296.83 1036.25 184 230 25
661.00 419.66 1011.85 113 230 31
749.54 390.33 1021.38 222 230 22
798.51 331.31 1041.27 156 230 27
739.39 310.43 1036.49 187 230 25
756.57 434.44 1019.47 220 230 22
770.14 318.50 1039.79 153 230 27
687.14 343.73 1021.56 115 230 30
688.64 408.23 1011.18 151 230 28
630.62 442.12 1013.38 176 230 26
726.46 405.38 1014.73 217 230 22
801.90 421.53 1028.09 133 230 29
773.26 464.43 1024.04 212 230 23
806.92 357.09 1037.95 144 230 28
721.66 457.74 1015.33 117 230 30
769.82 300.66 1044.26 255 229 19
638.91 374.76 1019.56 118 230 30
692.11 392.22 1013.21 159 230 27
658.09 341.72 1024.27 157 230 27
745.64 449.82 1018.92 132 230 29
790.69 322.37 1042.78 167 230 26
733.81 460.90 1017.44 126 230 30
726.49 296.70 1038.16 170 230 26
761.01 333.44 1034.44 175 230 26
798.83 392.59 1031.10 127 230 29
716.58 299.01 1036.26 204 230 23
754.45 375.86 1024.14 255 228 19
710.38 315.42 1030.31 232 230 21
644.35 357.71 1022.28 234 230 21
774.99 447.82 1023.01 171 230 26
636.55 379.02 1019.38 135 230 29
761.78 441.76 1020.67 141 230 28
761.67 430.47 1020.46 196 230 24
763.92 467.83 1023.35 255 225 19
641.16 374.99 1019.61 147 230 28
798.90 358.34 1036.79 198 230 24
749.73 317.15 1036.06 235 230 21
794.34 461.22 1027.19 125 230 30
776.17 306.41 1043.51 244 230 20
736.25 362.75 1023.18 211 230 23
725.70 400.83 1015.02 187 230 25
732.86 321.29 1032.30 255 204 17
737.46 435.29 1016.20 185 230 25
644.91 407.23 1014.53 153 230 27
806.44 314.95 1045.71 216 230 23
726.71 309.28 1034.65 112 230 31
791.07 401.20 1028.44 93 230 32
764.97 308.30 1041.23 255 213 18
638.32 422.47 1014.34 133 230 29
769.44 312.06 1041.26 157 230 27
806.73 418.24 1029.07 194 230 24
662.49 435.91 1012.02 137 230 29
729.18 316.50 1032.95 255 207 17
667.31 369.94 1017.05 184 230 25
690.86 447.49 1011.67 137 230 29
695.38 304.23 1032.69 248 230 20
704.73 344.33 1022.33 168 230 26
636.89 431.21 1013.66 131 230 29
713.02 463.10 1015.27 192 230 24
676.86 420.96 1010.98 121 230 30
758.62 388.91 1023.66 164 230 27
691.60 361.66 1017.94 137 230 29
686.23 301.29 1033.40 255 189 15
672.48 395.59 1013.23 190 230 25
713.26 338.50 1024.72 163 230 27
789.86 460.48 1025.87 174 230 26
687.18 414.11 1011.11 143 230 28
777.15 444.47 1023.80 127 230 29
718.55 360.21 1021.19 246 230 20
651.25 321.01 1029.99 156 230 27
783.11 429.43 1024.54 179 230 25
730.19 412.19 1015.34 245 230 20
667.32 406.21 1012.38 95 230 32
792.51 330.66 1040.90 122 230 30
772.30 324.94 1039.11 181 230 25
678.88 464.92 1014.01 131 230 29
797.49 339.92 1039.38 254 230 20
706.41 444.39 1012.13 128 230 29
718.49 309.33 1033.56 162 230 27
749.46 372.08 1024.25 131 230 29
634.81 412.93 1015.09 159 230 27
695.79 333.59 1024.24 255 225 19
743.57 315.02 1036.03 231 230 21
684.91 418.35 1010.42 88 230 33
723.63 364.31 1020.77 248 230 20
735.66 341.96 1027.10 255 197 16
643.82 450.42 1013.43 142 230 28
639.40 349.07 1024.52 193 230 24
733.87 364.47 1021.99 174 230 26
666.46 443.80 1011.81 139 230 29
756.62 456.79 1020.93 199 230 24
746.19 352.71 1027.18 167 230 26
716.41 328.08 1028.35 165 230 26
794.03 465.47 1027.12 231 230 21
785.07 433.61 1024.84 127 230 29
656.61 399.21 1013.70 108 230 31
775.02 400.21 1026.05 134 230 29
667.90 467.70 1014.49 93 230 32
804.78 328.02 1043.11 224 230 22
643.08 392.95 1016.19 175 230 26
634.15 345.60 1025.76 189 230 25
760.01 436.18 1020.11 217 230 22
701.31 309.89 1031.46 250 230 20
698.48 418.53 1010.76 150 230 28
634.75 409.88 1015.68 122 230 30
763.27 339.55 1033.83 153 230 27
807.77 394.28 1031.96 169 230 26
689.11 296.98 1035.32 255 208 17
718.83 436.36 1013.26 160 230 27
802.92 355.41 1037.52 143 230 28
646.68 332.27 1027.85 154 230 27
665.48 345.45 1022.72 171 230 26
744.74 369.02 1023.86 169 230 26
641.88 296.13 1036.54 146 230 28
769.92 431.89 1022.89 170 230 26
801.28 341.28 1040.44 176 230 26
723.81 332.59 1027.74 88 230 33
763.45 387.67 1025.03 188 230 25
660.31 342.51 1024.30 255 202 17
791.72 374.90 1032.62 164 230 27
779.42 410.21 1025.59 78 230 33
757.74 293.82 1043.85 201 230 24
765.10 377.66 1026.67 195 230 24
757.14 462.81 1021.81 145 230 28
639.27 380.04 1018.83 209 230 23
750.83 422.00 1018.50 238 230 21
720.89 397.36 1015.06 150 230 28
755.57 344.65 1031.17 149 230 28
681.00 378.32 1015.46 193 230 24
742.44 363.21 1024.23 254 230 20
647.50 305.82 1034.72 228 230 22
802.05 307.38 1047.14 198 230 24
803.48 421.49 1028.45 186 230 25
692.77 428.15 1010.96 179 230 25
643.38 428.71 1013.00 115 230 30
781.22 447.66 1024.42 168 230 26
648.95 433.28 1012.70 92 230 32
768.56 407.95 1023.48 194 230 24
664.77 339.47 1023.74 214 230 23
799.74 434.13 1027.19 145 230 28
787.00 334.40 1039.27 231 230 21
733.12 377.06 1019.87 129 230 29
722.03 445.97 1013.73 188 230 25
667.42 444.09 1011.54 132 230 29
668.42 417.03 1011.63 110 230 31
654.34 455.91 1012.86 103 230 31
739.16 340.41 1028.63 255 190 16
771.94 468.08 1024.20 253 230 20
744.83 421.28 1017.46 143 230 28
668.41 388.18 1014.29 122 230 30
645.59 384.46 1017.48 167 230 26
635.56 291.71 1038.51 164 230 27
758.02 410.90 1020.51 198 230 24
777.31 343.78 1036.01 180 230 25
771.16 395.51 1025.73 230 230 21
742.24 394.46 1019.45 215 230 23
670.37 365.17 1018.18 204 230 23
803.07 441.09 1027.15 182 230 25
654.76 422.83 1012.55 184 230 25
749.11 351.03 1028.20 249 230 20
779.90 313.69 1043.27 208 230 23
644.93 353.24 1022.91 187 230 25
796.46 456.19 1026.91 137 230 29
652.57 438.99 1012.10 88 230 33
788.12 322.26 1042.28 255 202 17
683.28 466.20 1013.65 166 230 26
802.62 436.71 1027.39 110 230 31
750.71 449.83 1018.75 172 230 26
780.24 398.43 1026.96 176 230 26
719.34 291.19 1038.70 199 230 24
715.38 333.09 1026.30 208 230 23
666.44 461.19 1014.08 202 230 24
633.44 353.21 1024.05 163 230 27
707.65 374.65 1016.16 196 230 24
682.87 399.62 1012.17 64 230 34
704.75 347.81 1021.96 136 230 29
691.93 410.51 1011.29 72 230 34
697.82 358.62 1018.35 170 230 26
771.44 300.94 1044.33 190 230 25
709.41 291.14 1037.70 181 230 25
645.86 436.71 1012.58 188 230 25
680.37 352.01 1020.25 235 230 21
714.56 372.94 1017.40 150 230 28
757.02 362.62 1028.03 207 230 23
757.87 439.59 1020.31 88 230 33
676.61 296.73 1034.96 162 230 27
705.97 359.17 1019.08 195 230 24
632.64 337.49 1027.71 187 230 25
631.19 455.50 1014.62 169 230 26
767.73 418.16 1022.77 218 230 22
781.14 320.30 1041.15 255 204 17
666.40 364.57 1018.57 210 230 23
670.73 342.19 1022.72 149 230 28
756.19 376.22 1024.88 255 169 13
636.53 440.01 1013.27 188 230 25
775.01 297.96 1045.25 218 230 22
808.43 324.93 1044.23 106 230 31
786.38 367.30 1033.19 171 230 26
738.99 356.21 1025.04 220 230 22
763.33 418.99 1021.33 211 230 23
658.01 395.60 1014.35 156 230 27
704.41 342.87 1022.72 233 230 21
640.18 328.98 1029.46 241 230 21
739.73 361.38 1024.45 237 230 21
720.05 381.39 1016.41 118 230 30
733.55 401.73 1016.50 255 212 18
659.19 358.46 1020.59 253 230 20
798.86 294.96 1049.49 206 230 23
641.34 377.03 1019.42 151 230 28
630.08 436.41 1013.87 182 230 25
703.02 318.01 1028.80 159 230 27
765.43 337.12 1034.62 197 230 24
809.76 436.58 1028.55 110 230 31
653.79 374.51 1017.83 181 230 25
688.25 353.10 1020.04 245 230 20
759.66 332.51 1034.54 225 230 22
668.65 423.21 1011.25 63 230 34
645.72 404.18 1014.23 138 230 29
754.89 299.94 1041.32 127 230 30
634.98 437.57 1013.52 128 230 29
683.53 297.24 1035.26 165 230 26
809.83 387.14 1033.76 182 230 25
733.41 368.90 1021.39 238 230 21
715.98 311.42 1032.42 199 230 24
781.17 373.12 1031.12 162 230 27
721.43 423.28 1013.09 138 230 29
727.35 465.66 1017.44 198 230 24
767.42 316.90 1039.87 178 230 25
748.25 422.31 1017.98 92 230 32
724.67 346.34 1024.27 255 222 19
668.45 294.53 1036.10 255 197 16
705.55 364.61 1017.85 146 230 28
704.08 412.18 1011.60 39 230 36
678.06 435.54 1011.12 90 230 32
783.92 353.71 1035.15 115 230 30
679.99 360.43 1018.00 137 230 29
705.10 335.04 1024.84 213 230 23
779.69 428.79 1023.81 62 230 35
728.85 327.36 1029.75 181 230 25
771.80 293.37 1045.93 114 230 31
671.33 430.86 1010.96 109 230 31
782.73 385.64 1028.92 141 230 28
713.15 468.79 1016.19 189 230 25
793.22 439.39 1026.00 175 230 26
648.56 456.27 1013.20 139 230 29
748.01 321.80 1034.61 156 230 27
755.45 364.87 1026.97 236 230 21
692.57 394.48 1012.39 104 230 31
665.29 427.17 1011.35 69 230 34
750.22 339.69 1030.65 146 230 28
688.01 295.32 1035.99 169 230 26
793.81 382.03 1031.64 223 230 22
778.71 396.83 1027.10 144 230 28
780.19 307.11 1043.77 190 230 25
769.06 326.60 1037.78 204 230 23
799.82 424.25 1028.24 255 226 19
651.92 318.48 1030.81 125 230 30
702.32 384.65 1014.66 130 230 29
726.51 382.68 1018.16 169 230 26
670.14 413.34 1011.17 108 230 31
669.74 358.33 1019.40 135 230 29
808.13 384.47 1033.54 168 230 26
746.34 344.75 1029.26 149 230 28
718.14 332.14 1026.95 227 230 22
790.32 428.90 1025.69 108 230 31
694.00 423.40 1010.63 94 230 32
785.00 302.99 1045.87 185 230 25
721.45 461.96 1016.31 142 230 28
721.87 327.78 1028.67 204 230 23
657.75 380.80 1016.32 91 230 32
730.33 436.33 1015.04 103 230 31
669.63 390.37 1014.00 163 230 27
783.68 384.54 1028.85 201 230 24
709.23 369.99 1017.43 198 230 24
730.94 425.54 1014.78 215 230 23
667.62 314.32 1030.44 128 230 29
701.33 425.77 1011.22 160 230 27
750.67 438.30 1018.58 106 230 31
687.73 464.81 1014.00 137 230 29
781.23 326.94 1039.80 183 230 25
725.57 422.26 1014.36 155 230 27
729.59 362.31 1021.79 215 230 23
647.04 340.15 1025.61 196 230 24
657.07 341.06 1024.46 187 230 25
803.20 311.86 1046.66 147 230 28
729.22 290.73 1040.41 237 230 21
710.93 420.37 1012.13 98 230 32
699.76 415.36 1011.50 126 230 30
633.59 429.28 1013.93 148 230 28
792.43 443.36 1026.03 140 230 28
670.72 348.21 1021.47 196 230 24
779.07 425.23 1024.41 122 230 30
793.82 416.51 1027.59 136 230 29
686.91 402.13 1012.06 155 230 27
787.97 449.93 1025.30 109 230 31
730.10 340.73 1026.36 190 230 25
642.34 453.19 1013.85 43 230 36
729.63 429.96 1014.51 103 230 31
749.78 404.49 1020.22 197 230 24
738.61 386.61 1020.02 175 230 26
789.98 404.23 1028.49 156 230 27
766.78 403.39 1023.61 221 230 22
677.39 290.67 1036.88 164 230 27
769.37 381.51 1026.65 174 230 26
691.02 400.12 1011.83 166 230 26
735.31 311.61 1035.80 240 230 21
666.51 432.82 1011.53 99 230 32
639.44 371.47 1020.71 173 230 26
664.99 317.85 1029.82 228 230 22
736.32 310.10 1036.18 145 230 28
638.17 291.59 1038.48 132 230 29
757.79 456.23 1020.85 255 218 18
788.19 326.80 1040.84 213 230 23
801.60 414.87 1028.43 162 230 27
687.35 301.78 1033.34 255 222 19
683.94 314.92 1029.57 160 230 27
778.45 447.35 1024.23 156 230 27
796.45 464.95 1027.63 151 230 28
732.64 422.15 1016.03 198 230 24
733.10 442.83 1015.32 115 230 30
753.20 354.27 1028.40 187 230 25
762.27 435.13 1020.96 116 230 30
775.95 390.99 1027.22 255 220 19
756.00 348.49 1030.44 205 230 23
747.66 396.10 1020.62 176 230 26
656.69 467.35 1015.14 189 230 25
765.26 301.06 1043.25 125 230 30
768.65 437.71 1022.03 121 230 30
658.39 463.55 1014.20 205 230 23
681.77 408.25 1011.46 96 230 32
745.24 433.89 1017.79 192 230 24
752.66 386.88 1022.91 255 174 14
714.46 434.16 1012.18 125 230 30
758.40 297.37 1043.23 236 230 21
745.10 439.17 1017.36 161 230 27
735.45 454.64 1016.75 252 230 20
683.14 406.88 1011.33 115 230 30
782.94 459.82 1025.42 68 230 34
778.76 426.54 1024.26 98 230 32
803.19 377.15 1034.04 119 230 30
738.86 306.46 1037.00 190 230 25
802.89 365.45 1035.78 100 230 32
744.37 340.82 1029.83 160 230 27
744.93 397.70 1020.02 154 230 27
662.52 428.99 1011.50 97 230 32
750.22 303.14 1039.79 82 230 33
751.73 411.63 1019.98 167 230 26
738.67 331.82 1030.85 214 230 23
639.78 453.13 1013.77 53 230 35
715.59 410.65 1013.17 118 230 30
665.43 428.51 1011.42 67 230 34
754.71 300.11 1041.31 118 230 30
773.11 321.35 1039.80 183 230 25
719.48 360.18 1021.28 222 230 22
675.52 342.14 1023.11 164 230 27
730.02 346.72 1025.13 189 230 25
771.52 433.09 1023.07 154 230 27
761.71 371.02 1027.51 229 230 21
671.93 330.88 1024.94 255 229 19
644.08 433.72 1012.72 112 230 31
709.65 378.53 1015.85 225 230 22
702.65 398.39 1012.74 174 230 26
801.42 398.63 1030.60 230 230 21
728.73 290.85 1040.30 219 230 22
748.57 324.42 1033.95 194 230 24
701.95 404.50 1011.80 242 230 20
630.18 364.93 1022.42 152 230 28
790.63 343.06 1038.15 255 228 19
644.81 418.13 1013.27 163 230 27
782.65 311.24 1043.24 147 230 28
695.26 393.36 1012.75 143 230 28
782.12 380.18 1029.63 255 207 17
716.44 393.21 1014.66 58 230 35
651.64 358.55 1021.00 79 230 33
798.68 411.19 1028.60 105 230 31
725.80 311.65 1033.85 255 182 15
781.43 467.55 1025.94 120 230 30
733.85 436.44 1015.42 215 230 23
793.33 394.25 1029.76 150 230 28
761.28 420.63 1021.09 144 230 28
691.49 314.39 1030.00 148 230 28
740.67 447.93 1016.88 217 230 22
685.73 390.22 1013.13 199 230 24
767.29 357.59 1031.11 168 230 26
657.71 379.48 1016.43 114 230 31
676.62 312.44 1030.34 145 230 28
759.98 390.81 1023.89 214 230 23
721.23 316.85 1031.63 169 230 26
725.58 425.40 1014.24 152 230 28
793.30 389.96 1030.93 125 230 30
737.13 341.68 1027.26 237 230 21
654.78 341.99 1024.64 199 230 24
694.53 431.96 1010.60 47 230 36
645.84 290.35 1038.68 222 230 22
751.54 465.01 1021.13 177 230 26
744.02 300.59 1039.95 162 230 27
711.94 428.38 1012.67 146 230 28
752.93 387.23 1022.84 255 203 17
671.83 376.79 1015.76 187 230 25
744.74 295.27 1041.28 243 230 20
728.45 299.94 1037.59 207 230 23
664.30 393.63 1013.66 134 230 29
723.85 394.25 1015.76 73 230 34
791.14 290.75 1049.51 221 230 22
779.04 455.70 1024.24 121 230 30
743.28 375.83 1022.29 255 228 19
644.11 387.84 1016.79 147 230 28
789.26 440.83 1025.37 181 230 25
631.68 350.00 1024.80 186 230 25
739.52 437.89 1016.42 161 230 27
674.64 443.72 1011.31 91 230 32
776.28 461.76 1024.84 81 230 33
708.68 444.01 1012.44 179 230 25
638.75 317.13 1032.12 194 230 24
665.48 440.62 1011.58 117 230 30
675.91 375.04 1015.90 217 230 22
744.11 303.55 1038.62 255 205 17
665.87 440.88 1011.53 122 230 30
644.57 430.59 1013.05 100 230 32
666.38 334.82 1024.85 178 230 25
792.65 416.83 1027.53 157 230 27
753.92 433.00 1019.08 68 230 34
709.71 317.82 1029.98 183 230 25
777.84 452.43 1023.88 182 230 25
690.69 368.96 1016.26 130 230 29
671.14 290.29 1037.06 228 230 22
731.97 431.17 1014.97 95 230 32
691.05 320.06 1028.36 171 230 26
673.36 325.10 1027.03 177 230 26
634.24 315.70 1031.87 170 230 26
1.75 464.06 989.29 153 230 27
153.93 375.67 995.56 116 230 30
42.00 331.91 1006.69 80 230 33
60.37 486.53 995.53 127 230 29
87.83 379.38 999.38 234 230 21
16.22 387.51 995.25 234 230 21
107.63 488.83 996.26 160 230 27
104.31 342.41 1006.16 176 230 26
137.25 491.12 992.51 202 230 24
27.94 473.76 991.74 151 230 28
10.38 354.78 1000.68 147 230 28
53.05 347.61 1004.10 189 230 25
61.22 402.39 995.54 40 230 36
138.16 470.38 988.09 198 230 24
95.83 345.93 1005.51 176 230 26
25.72 488.48 994.57 133 230 29
69.96 448.42 992.38 148 230 28
107.19 375.90 1000.31 173 230 26
29.53 345.93 1002.73 132 230 29
66.38 455.10 992.16 115 230 30
49.18 360.75 1001.60 121 230 30
78.64 436.80 992.53 71 230 34
102.03 343.36 1005.70 186 230 25
10.58 484.32 992.95 131 230 29
134.53 472.20 988.77 204 230 23
4.56 473.72 991.06 168 230 26
110.52 342.43 1006.18 168 230 26
145.48 353.75 1001.32 147 230 28
50.43 341.64 1005.09 48 230 36
129.57 324.19 1009.35 128 230 29
24.01 354.19 1002.12 166 230 26
91.38 344.86 1006.23 138 230 29
21.28 471.27 991.40 123 230 30
136.42 435.64 988.11 236 230 21
64.00 498.44 998.79 234 230 21
77.02 341.24 1005.68 151 230 28
49.68 449.96 990.99 107 230 31
89.96 459.93 992.44 180 230 25
20.25 471.39 991.52 94 230 32
74.65 458.59 992.53 127 230 30
56.79 331.83 1006.73 97 230 32
95.77 369.43 1001.35 139 230 29
51.65 437.49 991.99 178 230 25
107.49 361.52 1002.98 204 230 23
83.02 460.04 992.69 137 230 29
111.98 419.01 993.32 78 230 33
103.00 436.75 992.15 118 230 30
142.30 470.59 987.83 130 230 29
92.46 352.02 1004.94 255 228 19
138.05 338.89 1004.98 193 230 24
101.88 417.68 994.17 114 230 31
65.05 428.95 992.64 89 230 32
9.94 435.99 990.20 69 230 34
80.67 469.74 993.74 133 230 29
5.43 437.57 989.40 99 230 32
23.60 492.38 995.27 191 230 25
33.48 446.61 991.04 211 230 23
35.22 427.98 991.54 81 230 33
4.29 401.31 993.19 193 230 24
27.88 422.97 991.39 151 230 28
90.73 470.96 994.23 109 230 31
22.28 476.51 992.63 114 230 31
61.54 380.16 998.75 186 230 25
17.58 356.96 1000.80 255 225 19
84.37 445.78 992.49 57 230 35
135.88 429.09 988.60 190 230 25
104.38 321.19 1010.43 155 230 27
50.11 496.08 997.35 179 230 25
135.80 490.86 992.60 183 230 25
33.41 362.19 1000.56 132 230 29
124.66 344.65 1005.36 255 223 19
88.95 407.36 995.38 100 230 32
141.20 482.19 988.97 106 230 31
54.82 344.89 1003.88 188 230 25
63.17 374.74 999.37 117 230 30
106.73 404.00 995.58 172 230 26
153.38 423.74 985.94 123 230 30
67.24 464.57 992.38 108 230 31
89.95 438.13 992.55 116 230 30
10.98 422.95 990.88 164 230 27
39.49 330.76 1006.31 106 230 31
146.87 480.25 987.85 186 230 25
92.97 395.54 997.03 105 230 31
7.62 359.02 999.82 150 230 28
17.93 328.86 1005.57 247 230 20
23.30 462.48 991.03 145 230 28
49.45 337.26 1005.51 191 230 24
121.55 473.72 992.04 201 230 24
154.37 367.77 996.32 209 230 23
59.74 468.66 992.41 226 230 22
41.60 347.15 1003.68 151 230 28
79.94 374.86 1000.50 201 230 24
128.63 499.28 995.99 255 194 16
79.50 376.67 999.73 185 230 25
135.02 336.12 1005.71 139 230 29
118.42 411.44 993.29 239 230 21
120.54 343.01 1005.53 168 230 26
85.24 413.88 995.07 142 230 28
107.03 383.51 998.56 151 230 28
154.48 429.55 984.49 152 230 28
91.69 365.51 1001.78 169 230 26
55.95 385.91 996.76 69 230 34
28.20 388.79 996.23 107 230 31
137.64 334.11 1006.44 103 230 31
57.47 343.38 1004.64 255 216 18
119.21 342.15 1005.62 171 230 26
150.42 352.12 1000.77 190 230 25
62.58 407.66 994.60 79 230 33
20.05 488.62 994.12 227 230 22
120.31 422.22 992.32 237 230 21
7.59 367.51 998.07 183 230 25
91.80 483.27 995.50 143 230 28
130.44 357.73 1001.83 225 230 22
148.49 364.05 998.52 100 230 32
109.64 402.26 995.31 65 230 34
4.13 466.15 990.23 164 230 27
14.20 449.74 989.22 84 230 33
108.04 327.09 1009.38 251 230 20
126.42 427.76 990.90 101 230 32
4.24 499.92 996.27 255 228 19
82.40 495.64 998.21 128 230 29
66.83 457.89 992.34 107 230 31
26.24 469.52 991.26 141 230 28
6.90 410.13 992.00 106 230 31
7.04 499.76 996.43 158 230 27
39.81 455.58 991.45 170 230 26
1.10 395.21 993.93 124 230 30
5.17 457.39 989.52 88 230 33
139.01 384.76 995.14 191 230 24
92.31 421.02 993.48 59 230 35
60.04 379.02 998.42 245 230 20
20.00 490.22 994.69 247 230 20
88.06 373.20 1000.35 184 230 25
127.21 330.04 1007.92 106 230 31
71.46 369.70 1000.73 239 230 21
143.13 480.88 988.75 231 230 21
84.00 337.15 1006.77 208 230 23
8.95 489.84 993.79 156 230 27
132.38 440.05 989.18 90 230 32
94.71 324.90 1009.49 163 230 27
7.74 495.27 995.46 139 230 29
7.23 483.68 992.77 195 230 24
34.79 427.48 991.75 83 230 33
66.79 429.46 992.41 101 230 32
19.00 417.09 991.81 127 230 29
150.89 493.73 989.35 154 230 27
4.80 336.74 1003.65 151 230 28
34.33 483.75 993.58 179 230 25
106.39 445.51 991.73 129 230 29
87.98 441.56 992.07 126 230 30
20.71 402.84 993.72 115 230 30
60.66 473.41 993.95 160 230 27
79.39 331.24 1007.88 164 230 27
54.22 428.52 992.49 75 230 34
95.31 353.89 1004.21 162 230 27
